ply
format ascii 1.0
element vertex 1723
property float x
property float y
property float z
end_header
0.494217 0.519414 1.30599
0.523263 0.538021 1.2969
0.632291 -0.0209392 2.17618
-0.240905 0.254398 1.48418
-0.45047 0.354636 1.45957
-0.325705 0.301132 1.46078
-0.331219 0.353021 1.44408
-0.331066 0.373393 1.44052
-0.264569 0.354471 1.41841
-0.25027 0.321947 1.45431
-0.307536 0.386104 1.42535
-0.36733 0.464382 1.66948
-0.106371 0.432781 1.10621
-0.108911 0.416022 1.12303
-0.733685 0.0834776 1.47367
-0.159493 -0.0184423 1.3043
0.510052 0.497342 1.28224
0.484808 0.514827 1.32213
-0.817174 1.00183 1.51091
-0.508248 0.862987 1.30923
-0.525319 0.865417 1.3162
-0.525574 0.854183 1.31228
-0.455079 0.396158 1.45221
-0.332023 0.423519 1.44351
-0.495791 0.790291 1.37311
0.501558 0.52004 1.25466
0.426974 0.532001 1.19758
-8.06104 -0.847081 0.583429
-8.08937 -0.725614 0.877921
-7.48479 0.863157 2.12452
-7.91847 1.11645 3.62763
-7.90124 -0.946333 4.71183
-10.6095 -1.34767 4.73752
-8.26835 0.618572 4.55447
-8.30326 0.686426 4.84264
-8.82734 -0.08081 4.75117
-8.51187 -0.554565 5.46941
-8.68448 -0.133535 4.84209
-8.67019 0.232326 5.30761
-7.39349 -0.134531 6.17733
-8.45285 0.754252 5.76345
-8.45668 0.610807 3.19073
-9.52075 0.78317 2.50592
-8.34618 0.064892 1.47018
-7.46478 0.965104 2.29518
-8.04999 -0.0121741 1.65592
-7.8324 -1.18753 3.47672
-7.39891 0.943756 2.97002
-8.60374 0.545342 3.66531
-7.88845 1.28214 3.89762
-10.4109 -1.38974 3.94714
-8.67701 0.536021 3.78592
-7.93298 0.944569 4.25768
-7.95375 0.835772 3.99432
-9.46578 0.810979 3.43245
-7.96704 -0.718173 1.91059
-9.23725 -1.01843 4.58411
-7.92623 -0.862559 4.51488
-9.30409 -1.03994 4.76197
-8.11672 0.11273 4.43555
-7.40159 1.21867 4.40316
-10.6421 1.54654 4.33491
-7.20127 -0.975207 4.68158
-7.98289 0.120108 5.23656
-7.11284 -0.515352 5.16157
-7.9723 0.151647 5.24162
-7.97783 0.45789 5.09806
-7.95198 0.972496 6.02043
-8.03974 -0.376191 0.148143
-7.87922 -0.626302 0.259661
-7.84863 -0.237941 0.268722
-8.01782 -0.396736 0.335545
-8.24541 0.109486 0.358373
-7.86459 -0.313005 0.496403
-7.99773 -0.954118 1.04324
-8.32633 -0.261642 0.733057
-8.32679 -0.259833 0.734665
-8.00323 -0.226291 0.870173
-8.00618 -0.225895 0.876298
-8.08729 0.416844 0.757824
-8.09269 0.41747 0.7669
-7.98458 0.398728 0.74893
-8.12451 0.438072 0.931369
-8.17583 0.407865 1.0213
-7.91348 -0.296326 0.637375
-8.44818 0.439472 1.00412
-8.50212 0.473787 1.08171
-8.14328 0.0959238 1.60549
-7.90918 0.45532 1.16623
-8.38233 -0.269735 1.35399
-8.31497 0.501397 1.2289
-8.31355 0.504126 1.22277
-8.30767 0.5131 1.23109
-8.32497 0.519297 1.26546
-8.44843 -0.935604 2.47846
-8.34033 0.417155 1.32536
-8.2994 0.0557362 1.45233
-7.84405 0.457008 1.34629
-8.36674 -1.2067 1.76557
-7.85157 0.440444 1.32655
-8.39042 0.497622 1.4288
-8.43156 0.139195 1.69298
-7.85238 0.483051 1.41518
-7.87117 0.532151 1.49237
-7.23699 -0.682458 0.939174
-11.0118 -2.40054 3.83867
-7.46601 0.851836 2.74189
-8.50703 0.677226 3.42002
-9.38088 0.786366 3.10591
-9.56792 0.875189 3.4958
-8.53614 -1.12487 4.23102
-7.76864 0.883207 4.17564
-7.67931 1.01857 3.76763
-7.72497 0.846182 4.04757
-8.14228 -0.896813 3.97575
-8.14659 -0.89327 3.96963
-8.7977 -0.961012 4.24206
-8.36728 -0.968039 2.98248
-8.49672 -1.12169 4.26445
-9.22234 -1.05609 4.52976
-7.71215 0.812143 3.96819
-9.25332 -1.03493 4.61473
-9.17674 -1.07963 4.42465
-10.7123 0.573525 4.07602
-7.89267 -0.852942 3.93048
-6.77125 -0.651379 4.7888
-10.6881 1.60103 4.40963
-11.0691 1.6001 4.22219
-10.0664 -1.42229 5.01414
-8.30115 0.741585 4.71162
-8.52065 -0.160099 4.81279
-8.62752 0.215868 5.03289
-11.1239 -1.50741 5.20323
-8.11463 0.148535 5.34737
-9.01269 0.860646 4.99227
-8.19807 0.178697 6.37876
-9.55122 0.142902 7.92981
-0.833772 -0.00877264 1.44571
-0.101567 0.434684 1.11726
-0.0960057 0.417989 1.12734
-0.105359 0.437549 1.12111
-0.112722 0.772982 1.06657
-0.293031 0.225168 1.27949
-0.473565 0.750647 1.20144
-0.653389 0.372469 1.11167
-0.681464 0.893822 1.38633
-0.678094 0.803616 1.28512
-0.585063 0.84885 1.40517
-0.652563 -0.083447 1.17195
-0.659962 0.604829 1.02512
-0.658032 0.72765 1.03862
-0.667302 0.414717 1.10215
-0.659908 0.755061 1.01384
-0.512739 0.751689 1.22667
-0.51769 0.826911 1.33472
-0.554356 0.766335 1.29499
-0.666855 0.397784 1.1312
-0.591433 0.773178 1.21861
-0.556269 0.769386 1.21634
-0.559246 0.758622 1.20775
-0.292628 0.259152 1.48824
-0.481948 0.743486 1.24371
-0.458979 0.708015 1.19887
-0.565349 0.0508449 1.31021
-1.03438 0.763009 1.01039
-0.644282 0.708135 1.17669
-0.525889 0.443561 1.46109
-0.66913 0.317044 1.11864
-0.667523 0.627329 1.05557
-1.026 0.757481 1.01011
-0.244153 0.273504 1.33375
-0.245241 0.300364 1.31193
-0.304948 0.230419 1.38566
-0.629987 -0.315874 1.17065
-0.697821 0.0456107 1.36463
-0.63335 0.0896806 1.35072
-0.653061 0.0777024 1.36197
-0.412972 0.420003 1.43873
-0.432762 0.316774 1.461
-0.297961 0.230127 1.38397
-0.515991 0.222739 1.50144
-1.6845 0.430078 1.03771
-0.282301 0.254161 1.39692
-0.653847 0.0754511 1.36105
-0.369623 0.427344 1.44956
-0.293159 0.315197 1.4553
-0.319116 0.252475 1.166
-1.52076 0.369621 0.913094
-0.349809 0.273135 1.45225
-0.334592 0.28676 1.38534
-0.357339 0.286384 1.43381
-0.316715 0.325604 1.59594
-0.328323 0.440965 1.59887
-0.409128 0.316052 1.46218
-0.395147 0.370749 1.44713
-1.0472 -0.464988 1.65875
-1.07928 2.87965 3.82807
-0.297003 0.289867 1.38135
-0.311774 0.398649 1.59838
-0.305027 0.316808 1.36327
-0.654452 -0.316097 1.19606
-0.297139 0.25064 1.38255
-0.354933 0.460205 1.59779
-0.43202 0.359465 1.46172
-0.262454 0.0838635 1.33014
-0.645267 -0.317955 1.17715
-0.315342 0.306153 1.60432
-0.363707 0.502604 1.67447
-0.326495 0.409823 1.4755
-0.551197 0.886089 1.47787
-1.03717 -0.436678 1.65538
-0.648893 -0.0204254 1.37535
-0.741245 0.878498 1.3997
-0.572053 0.805129 1.35065
-0.652033 -0.30838 1.19258
-0.648582 0.0112405 1.36889
-0.64931 0.0566614 1.36284
-0.643939 -0.0391947 1.38817
-0.648796 0.0103441 1.3703
-0.650767 0.058837 1.36491
-0.704889 0.714283 1.29741
-0.357524 0.171659 1.05354
-0.666192 -0.324528 1.16601
-0.682656 0.41561 1.12574
-0.292807 0.223578 1.39361
-0.354061 0.143662 1.02295
-0.30669 0.299081 1.4513
-0.312308 0.0843076 1.31891
-0.264102 0.261034 1.34259
-0.313892 0.329882 1.37783
-0.269996 0.277001 1.36159
-0.331412 0.318051 1.39965
-0.349548 0.299831 1.41203
-0.480449 0.627074 1.83833
-0.677543 0.0156148 1.14608
-0.365979 0.301275 1.46494
-0.29924 0.312811 1.38456
-0.287729 0.35861 1.44585
-0.654651 -0.300339 1.11526
-0.351809 0.280167 1.47443
-0.307356 0.373139 1.44249
-0.331531 0.276074 1.47555
-0.308424 0.278963 1.47303
-0.320364 0.304467 1.36809
-0.327402 0.294491 1.47833
-0.383516 0.2775 1.45089
-0.371934 0.39346 1.44059
-0.37379 0.274406 1.46237
-0.432716 0.376298 1.45583
-0.434648 0.28973 1.46604
-0.348374 0.294467 1.59053
0.0871176 -0.0209578 0.942585
-0.310049 0.352916 1.44511
-0.271169 0.356135 1.43359
-0.040642 -0.303773 1.08367
-0.0425371 -0.294734 1.09928
-6.26602 -0.119371 -0.427778
-6.21837 0.408046 -2.74
-7.33206 0.439099 -4.00396
-9.34928 -0.170121 -0.957972
-9.38909 -0.135685 -0.94424
-7.19012 -0.597933 -0.281362
-4.8843 -0.218061 0.892026
-5.67586 0.381676 -1.93568
-7.54331 0.146582 -3.89419
-8.74515 -0.0469887 -0.872438
-9.97912 -2.10387 -2.65228
-8.86546 -0.533758 -0.546834
-5.49375 -1.58267 -2.6005
-7.17734 0.515407 -2.80394
-9.27829 -1.53576 -2.62496
0.479396 0.427405 1.06835
0.488883 0.553034 1.22899
0.420564 0.5196 1.1987
0.447447 0.479149 1.25039
-0.412552 0.471425 1.7373
-0.41252 0.334889 1.45592
-0.325447 0.317345 1.45042
-0.391582 0.410857 1.48058
-0.286203 0.317651 1.45646
0.304592 -0.0271302 1.40729
0.286848 0.0791847 1.39362
0.371724 0.118477 1.38721
-0.371566 0.258811 1.50217
-0.0883516 0.770363 1.04386
-0.32128 0.234319 1.27927
-0.304824 0.287645 1.28126
-0.505192 0.85189 1.28338
-0.135403 0.412287 1.31923
-0.533915 0.862891 1.31615
-0.50748 0.84447 1.35929
-0.558692 0.82655 1.29939
-0.402467 0.3115 1.42552
-0.431268 0.293936 1.47678
-0.392415 0.292598 1.46571
-0.375824 0.313166 1.46192
-0.33046 0.290105 1.44961
-0.40201 0.250761 1.47771
-0.251871 0.292904 1.45054
-0.233965 0.352947 1.44818
-0.546584 0.872798 1.46075
-0.543087 0.866398 1.45326
-0.50895 0.827595 1.43861
-0.334175 0.223257 1.15111
-0.0937896 0.0860732 1.15051
0.412895 0.422367 1.1611
-0.313158 0.271448 1.13337
-0.0908392 0.436991 1.10573
-0.0933423 0.44405 1.11561
-0.101168 0.42049 1.12777
-0.0973938 0.438104 1.13291
-0.372068 0.252061 1.28241
-0.304061 0.239288 1.28767
-0.124987 0.127331 1.3593
-0.814268 0.951697 1.43399
-0.76404 0.917046 1.42252
-0.889672 0.981311 1.5168
-0.407145 0.29924 1.45206
-0.36564 0.338498 1.45006
-0.265832 0.340629 1.44448
-0.392836 0.350945 1.45041
-0.290799 0.287485 1.43869
-0.431903 0.405367 1.42409
-0.272782 0.334237 1.45018
-0.414434 0.391879 1.6166
-0.469161 0.445123 2.01141
-0.0940659 0.428426 1.11807
-0.306124 0.323711 1.27326
-0.300789 0.210405 1.28862
-0.518162 0.839363 1.29548
-0.506956 0.836688 1.29066
-0.43419 0.279557 1.47733
-0.366501 0.316264 1.45617
-0.411668 0.279148 1.46837
-0.309907 0.356646 1.43843
-0.409332 0.376127 1.43477
-0.221057 0.312176 1.45683
-0.228347 0.294745 1.45666
-0.0950529 0.430466 1.11883
-0.724556 -0.0935929 1.40534
-0.676373 0.88874 1.34539
-0.849624 0.950248 1.4766
-0.71778 0.861708 1.3933
-2.1244 -0.19712 0.235139
-2.03904 -0.202117 0.256772
-2.80664 -0.495732 0.999894
-0.68339 0.0102161 1.29273
-0.585389 0.802022 1.33392
-0.590176 0.802347 1.33519
-1.06944 0.785004 1.03405
-0.655092 0.714564 1.03531
-0.23748 0.246656 1.3251
-0.495972 0.753886 1.23534
-0.480057 0.728283 1.22988
-2.21315 0.727655 1.40376
-0.254355 0.377963 1.3402
-2.01939 0.133866 1.37016
-1.06069 0.769113 1.03191
-1.98498 0.625851 1.27034
-1.80871 0.536725 1.14933
-0.511295 0.824067 1.31281
-0.292014 0.427059 1.5044
-0.523393 0.834321 1.35603
-0.250118 0.36515 1.31865
-0.22399 0.276445 1.45072
-0.655816 0.663271 1.11066
-1.5748 0.381896 0.97882
-2.02363 0.114043 1.31439
-0.657255 0.713657 1.26607
-0.39692 0.349191 1.42483
-0.490308 0.785192 1.34013
-0.495371 0.752925 1.30498
-0.807499 -0.0095768 0.462741
-1.71399 0.0516961 1.09604
-2.15076 1.18334 1.17809
-0.320637 0.19488 1.30509
-1.75225 0.0856348 1.19177
-1.8154 1.1226 1.14839
-1.51889 0.339783 0.9529
-2.62622 0.837337 1.40867
-0.238178 0.295748 1.31112
-0.438598 0.68561 1.12312
-0.468363 0.738189 1.17535
-2.13298 0.65963 1.29736
-0.474429 0.704897 1.18708
-1.87147 0.00386358 1.08404
-1.83012 0.537769 1.16876
-1.69734 0.430629 1.03394
-1.5364 0.386471 0.967521
-2.04133 1.17197 1.14944
-1.99147 -0.504263 1.42834
-0.317257 0.265324 1.1286
-0.495164 0.71145 1.15854
-1.03584 -0.448282 1.63667
-0.656799 0.26507 1.10822
-1.82767 0.121494 1.24469
-1.64009 -0.0300249 0.937074
-1.92497 0.0890366 1.09992
-1.03692 -0.442192 1.63317
-0.701249 0.190126 1.82999
-1.54694 -0.404154 1.06816
-1.81787 -0.463045 1.27914
-1.4129 -0.339771 0.846398
-0.249663 0.25173 1.46266
-1.79783 0.275602 0.963582
-0.250048 0.217595 1.19723
-2.37184 0.183143 1.55881
-0.303956 0.321747 1.22243
-0.419011 0.491036 1.58614
-0.667256 -0.0900929 1.17608
-1.98228 -0.434633 1.37711
-2.06834 0.184686 1.41867
-0.33387 0.608413 1.82234
-0.288879 0.193984 1.27686
-0.652983 0.379467 1.11267
-1.81474 -0.463373 1.33408
-0.230273 0.382507 1.39839
-1.87852 -0.425898 1.20419
-0.246829 0.223959 1.20646
-0.218161 0.299289 1.12497
-0.665425 0.310252 1.09553
-1.88108 0.0752525 1.27704
-1.24998 0.256784 0.755181
-2.22357 0.139002 1.45823
-1.41545 0.286664 0.845197
-1.03305 -0.307324 0.687791
-0.668525 0.0876381 1.17538
-0.080782 0.0746291 1.12886
-0.0353687 -0.302447 1.07965
-0.0656098 -0.307666 1.04966
-0.0486606 -0.288939 1.08833
-0.774445 0.512723 1.20353
-0.762134 0.496069 1.16767
-0.761068 0.494783 1.20151
-0.106098 0.0886632 1.1258
0.21355 0.0571185 1.06667
0.27603 0.0876241 1.36679
0.276586 0.0723959 1.25092
-0.0473852 -0.30965 1.09789
-0.0591754 -0.29828 1.0994
-0.725804 0.0183793 1.30833
-0.353694 0.439371 1.4693
0.34742 0.107551 1.46084
-0.432747 0.428824 1.45059
-0.269494 0.431974 1.44036
-0.0456945 -0.330134 1.08673
-0.0564893 -0.300101 1.10724
-0.09551 0.0962894 1.15444
-0.108013 0.446899 1.11349
-0.347558 0.320136 1.71168
-0.0462926 -0.300978 1.09247
-0.826415 0.0366682 1.41953
0.474626 0.407754 1.06125
-0.0444131 -0.29063 1.08501
-0.873563 0.122765 1.3986
0.320315 -0.0249368 1.43836
0.383518 -0.0268909 1.37238
0.507234 0.48413 1.22287
-0.042089 -0.30804 1.08484
-0.263127 0.21702 1.15247
-0.822228 0.00342536 1.36961
-0.107255 0.456834 1.11919
-0.112658 0.442301 1.12105
-0.797047 0.00915896 1.43727
-0.728854 0.0829451 1.46675
-0.302582 0.229469 1.30274
-0.405992 0.358895 1.48028
-0.372472 0.379845 1.46994
-0.396869 0.323165 1.47052
-0.374238 0.34931 1.53992
-0.288222 0.28513 1.43644
-0.358557 0.33118 1.48685
0.328115 0.110279 1.44292
0.369519 0.122249 1.39085
0.458685 0.564051 1.24554
0.415315 0.507759 1.1492
0.454587 0.440977 1.22237
0.463075 0.488041 1.19556
0.46317 0.449945 1.23296
-0.415093 0.418374 1.71974
-0.326658 0.362795 1.76033
-0.964312 0.186129 2.12394
-0.425634 0.412657 2.08508
0.60089 0.0169924 2.0737
-0.557326 0.574921 2.67813
-0.263713 0.211768 1.03648
-0.0665404 -0.269727 1.0436
-0.299113 0.20285 1.28575
-0.317751 0.295811 1.28051
-0.286624 0.353499 1.2719
-0.269572 0.288328 1.42021
-0.541219 0.897725 1.35295
-0.492832 0.425918 1.46258
-0.43601 0.369152 1.44598
-0.38816 0.358878 1.45296
-0.41022 0.294169 1.47264
-0.367864 0.333214 1.46363
-0.373259 0.319507 1.46278
-0.36826 0.297373 1.48005
-0.326984 0.316837 1.46698
-0.374692 0.302087 1.47578
-0.356673 0.326488 1.4784
-0.333328 0.341309 1.45684
0.336954 0.110878 1.46064
0.312059 0.0901805 1.4495
0.29488 0.131935 1.42265
0.402469 0.133687 1.45225
0.471064 0.453699 1.17733
0.452463 0.552622 1.21199
-0.402668 0.415454 1.77637
-0.330278 0.399653 1.6558
-0.328045 0.405328 1.72802
-0.326562 0.428755 1.71766
0.489414 0.505551 1.24496
-0.42575 0.412556 2.08091
-0.432017 0.672894 2.07492
-0.401813 0.51534 2.08307
-0.526155 0.663144 2.67479
-0.24764 0.282628 1.27479
-0.319216 0.279501 1.3836
-0.378614 0.385361 1.46453
-0.30707 0.339781 1.46058
-0.336167 0.371873 1.42819
-0.291908 0.281449 1.46129
-0.266639 0.376582 1.45659
-0.292538 0.329606 1.43286
0.33463 -0.0232488 1.49445
0.355879 0.0929726 1.33697
0.326378 0.114521 1.47398
0.325527 0.145997 1.51457
-0.31423 0.315247 1.69761
-0.471051 0.433957 2.06995
-0.432326 0.461609 2.09918
-0.406992 0.611357 2.09158
-0.0690927 -0.307374 1.12475
-0.282689 0.193893 1.14681
-0.425499 0.259161 1.47327
-0.396674 0.278186 1.47996
-0.30438 0.335216 1.45058
0.322097 -0.0246374 1.44656
0.313066 0.0723957 1.37418
-0.414734 0.410187 1.77747
-0.360642 0.321406 1.72351
-0.32429 0.410708 1.70008
0.475228 0.516223 1.24853
0.478998 0.470965 1.28148
0.541952 0.490174 1.19844
0.599356 -0.000357973 2.07145
0.604385 -0.000472306 2.08499
-0.548036 0.643696 2.69891
-0.556352 0.55864 2.71577
-0.0605498 -0.317425 1.12551
-0.967155 0.0190389 1.63192
-0.876769 0.0189703 1.55308
-0.109232 0.430822 1.11692
-0.43055 0.341009 1.46646
-0.410883 0.394678 1.44399
-0.367995 0.377744 1.44255
-0.326617 0.277091 1.46801
-0.294948 0.335234 1.45753
0.325668 0.157542 1.5162
-0.437006 0.467338 1.7005
-0.44451 0.391358 1.71861
0.461581 0.507893 1.24078
-0.508108 0.503949 2.0896
-0.413341 0.527684 2.05622
-0.536975 0.633672 2.67561
-0.514235 0.59652 2.69365
-0.0535528 -0.308402 1.11491
-0.0607268 -0.318141 1.12875
-0.268683 0.192588 1.14077
-0.104773 0.440607 1.11387
-0.106451 0.418433 1.09811
-0.287852 0.33773 1.26596
-0.703102 1.0353 1.59784
-0.30441 0.375939 1.43447
-0.284357 0.337511 1.43734
-0.245034 0.300919 1.45686
-0.591274 0.983282 1.56371
0.317761 0.106832 1.45925
0.401552 0.101558 1.42671
-0.429061 0.347631 1.75915
-0.3466 0.306355 1.70818
0.500389 0.485528 1.24035
0.487684 0.516391 1.33114
0.48466 0.595731 1.29535
-0.538677 0.444847 2.11928
-0.386842 0.402524 2.06735
-0.558428 0.582971 2.69739
-0.944422 0.0123892 1.59176
-0.874353 -0.0153571 1.58931
-0.0958626 0.0795238 1.1676
-0.102174 0.428396 1.12677
-0.696528 0.0571783 1.418
-0.290626 0.365035 1.27762
-0.334972 -0.0262332 1.34827
-0.305814 0.317603 1.26562
-0.387249 0.283931 1.46691
-0.417003 0.246935 1.46692
-0.25142 0.264864 1.47517
0.264659 -0.0172117 1.34479
0.383137 0.108889 1.42215
-0.340514 0.311769 1.72861
-0.395523 0.508703 1.68801
-0.345056 0.310346 1.69877
0.509222 0.498708 1.28792
0.501542 0.524098 1.28014
-0.421707 0.600117 2.04309
0.697914 0.0111223 2.37315
-0.0860472 0.0996481 1.14187
-0.933921 0.00532447 1.57632
-0.0978488 0.0893636 1.15605
-0.28798 0.339972 1.26708
0.338792 -0.0326222 1.29877
0.399831 -0.0191773 1.41736
0.396099 -0.0199799 1.4105
-0.774574 1.06016 1.54685
-0.451159 0.402107 1.44997
-0.401605 0.429437 1.69358
0.462984 0.467423 1.27244
-0.25906 0.150053 0.799858
-0.6782 0.0626553 1.2278
-0.104914 0.825902 1.0691
-0.286677 0.215183 1.27983
-0.578232 0.901907 1.37769
-0.55229 0.903105 1.37384
-0.600778 0.860962 1.41369
-0.868996 0.00342058 1.48252
-0.874433 -0.000123331 1.49644
-0.105642 0.426777 1.12668
-0.104087 0.806951 1.05563
-0.116473 0.790904 1.08048
-0.0986572 0.80641 1.06458
-0.119188 0.780093 1.07528
-0.266363 0.216602 1.33255
-0.535722 0.870077 1.33231
-0.541444 0.879887 1.34441
-0.540827 0.873379 1.40157
0.446549 0.449786 1.15643
-0.395241 0.286511 1.68773
-0.115428 0.779326 1.20567
-0.11614 0.784037 1.20705
-0.52111 0.826707 1.34738
0.259638 0.0769502 1.31233
0.30357 0.102386 1.2661
-0.0982841 0.44755 1.11288
-0.0958304 0.448026 1.11577
-0.115923 0.78399 1.08237
0.303994 0.0596446 1.3462
-0.411404 0.33572 1.46535
-0.412948 0.36915 1.43736
-0.431485 0.347963 1.44785
-0.390699 0.39577 1.43912
-0.39 0.352819 1.44509
-0.39139 0.374736 1.43266
-0.432149 0.354613 1.46841
-0.37141 0.292418 1.4528
-0.251976 0.356542 1.45416
-0.253842 0.326103 1.42275
-0.695195 0.0598329 1.46548
-0.412228 0.353989 1.45246
-0.435985 0.313678 1.46241
-0.456487 0.376165 1.45432
-0.3915 0.376795 1.45244
-0.271132 0.390616 1.41558
-0.451884 0.405788 1.42975
-0.67624 0.397498 1.09826
-0.655871 0.749104 1.01168
-0.66073 0.754684 1.05388
-0.652303 0.66136 1.19586
-0.698284 0.702522 1.28749
-0.513156 0.755152 1.23455
-0.600276 0.784648 1.24351
-0.290052 0.365903 1.38893
-0.485571 0.76594 1.26908
-0.467888 0.799458 1.24964
-0.34858 0.397604 1.44312
-0.321596 0.184942 1.2792
-0.661029 0.391115 1.11586
-0.325649 0.208719 1.35596
-0.374151 0.259234 1.42202
-0.618916 0.537135 1.02192
-1.60437 0.384783 0.944756
-2.78627 1.32023 1.32695
-0.655284 0.788389 1.26376
-0.775772 1.34711 1.79123
-0.985313 2.62842 3.30164
-2.81909 1.33857 1.33748
-0.578835 0.100844 1.47317
-0.267666 0.254857 1.30296
-1.57344 0.0513137 1.04011
-0.371427 0.286666 1.44131
-0.359788 0.329899 1.30167
-2.02631 0.557587 1.0534
-0.308895 0.269192 1.49095
-0.302491 0.488065 1.81464
-0.312728 0.512891 1.81148
-0.338141 0.326698 1.34254
-0.343362 0.317077 1.3689
-0.224925 0.369065 1.42246
-0.254674 0.371024 1.37965
-0.311034 0.325528 1.48075
-0.389322 0.294519 1.50715
-0.350997 0.34336 1.48091
-0.425617 0.424517 1.60635
-0.372161 0.412842 1.4704
-0.304739 0.531388 1.78344
-1.0994 2.5434 3.3846
-0.631528 -0.316597 1.17729
-0.599772 0.0937277 1.25978
-0.374744 0.22914 1.41313
-0.559919 0.0859214 1.39214
-0.35421 0.329272 1.39443
-0.317418 0.394098 1.53475
-0.36044 0.497148 1.69829
-0.3618 0.312538 1.6534
-0.333686 0.293498 1.39823
-0.351588 0.269531 1.49595
-0.365132 0.532433 1.67277
-0.668961 0.00419466 1.27082
-0.299706 0.347927 1.37305
-0.456222 0.291666 1.49011
-0.654173 -0.311191 1.11101
-0.324619 0.318887 1.32477
-0.277743 0.268171 1.41935
-0.64155 -0.0545751 1.31526
-0.713022 -0.0380559 1.49418
-0.329564 0.319461 1.62589
-0.349786 0.380237 1.45712
-0.430399 0.295568 1.48157
-0.434139 0.369739 1.43523
-0.233867 0.179739 1.28662
-0.684923 0.423749 1.14913
-0.391175 0.239253 1.28251
-0.465507 0.0524705 1.40477
-0.514398 0.227425 1.5226
-1.05659 2.12681 10.2193
-0.298552 0.236573 1.42017
-0.679631 -0.0564817 1.4233
-0.252569 0.32886 1.44038
-0.308247 0.25374 1.33457
-0.232265 0.335497 1.43015
-0.284277 0.477663 1.59381
-0.189924 0.211057 1.4017
-0.431351 0.340069 1.48564
-0.322127 0.433923 1.50476
-0.530739 0.444042 1.46284
-0.292165 0.0753433 1.33359
-0.431117 0.326094 1.48983
-0.430918 0.403897 1.46303
-0.375544 0.457035 1.85814
-0.692854 0.445207 1.12658
-0.396887 0.249122 1.30879
-0.463604 0.0550756 1.41506
-0.430479 0.288908 1.49677
-0.409489 0.290459 1.51727
-0.411164 0.303539 1.4902
-0.427358 0.279172 1.49461
-0.431045 0.381328 1.47407
-0.431475 0.345028 1.47575
-0.377742 0.483087 2.03162
-0.319726 0.10576 0.993987
-0.297602 0.207135 1.24865
-0.379977 0.268056 1.30855
-0.676703 -0.0624734 1.36392
-0.455999 0.361057 1.47409
-0.412046 0.277349 1.48302
-0.430783 0.305902 1.48664
-0.455663 0.378702 1.4705
-0.358661 0.327183 1.68403
-0.329472 0.444128 1.63629
-0.649253 -0.0112265 1.19
-0.103132 0.0758736 1.25427
-0.25584 0.346503 1.41364
-0.455929 0.301586 1.50537
-0.44428 0.259049 1.50809
-0.455139 0.257239 1.49441
-0.232867 0.258093 1.43731
-0.336248 0.336679 1.70072
-0.426599 0.513561 2.0235
-0.407682 1.03998 3.44535
-0.374086 0.250924 1.16164
-0.370135 0.178967 1.18249
-0.338402 0.154999 1.1903
-0.67966 0.0103895 1.30045
-0.397852 0.315614 1.29561
-0.452101 0.423968 1.4547
-0.412242 0.361713 1.4781
-0.431363 0.350279 1.48587
-0.397745 0.33518 1.44835
-0.345102 0.309499 1.55338
-0.331872 0.255618 1.48576
-0.324523 0.293826 1.19423
-0.249335 0.285692 1.44065
-0.292181 0.401567 1.43807
-0.389226 0.429698 1.48381
-0.376687 0.431951 1.63772
-0.335242 0.509547 1.6361
-0.372641 0.465262 2.04064
-0.708482 0.457415 1.14537
-0.298223 0.36882 1.3876
-0.267598 0.27474 1.46745
-0.348556 0.296448 1.47718
-0.429217 0.319578 1.49111
-0.428766 0.318491 1.5459
-0.449622 0.32301 1.48647
-0.411678 0.319814 1.48478
-0.431428 0.419682 1.46173
-0.389068 0.330928 1.49067
-0.4014 0.441551 1.57087
-0.0588263 -0.306102 1.00139
-0.717611 0.449799 1.13954
-0.322653 0.230476 1.30836
-0.426114 0.340366 1.48072
-0.40207 0.649886 2.58265
-0.401778 0.875471 2.52287
-0.670326 -0.332952 1.11961
-0.721398 0.0234495 1.30124
-0.694279 0.0302704 1.29698
-0.179957 0.050174 1.32549
-0.322643 0.200677 1.31294
-0.29836 0.228076 1.40004
-0.389942 0.337409 1.47787
-0.354558 0.307927 1.43362
-0.390005 0.435497 1.77718
-0.347067 0.486731 2.04397
-0.271237 0.08527 1.31304
-0.678804 -0.0674882 1.37239
-0.32415 0.320594 1.55522
-0.45697 0.337212 1.47064
-0.389644 0.320722 1.48689
-0.391421 0.422227 1.46013
-0.408014 0.382343 1.70541
-0.336029 0.413492 1.68453
-0.404637 0.496331 2.04353
-0.36399 0.655345 2.55637
-0.369566 0.722238 2.54625
-0.432706 -0.0809357 0.770646
-0.702503 0.398659 1.11507
-0.102007 0.0995504 1.11025
-0.347906 0.266075 1.16595
-0.315438 0.152636 1.19071
-0.715172 0.0587195 1.30202
-0.280793 0.0785744 1.32897
-0.742482 0.0253922 1.31606
-0.341263 0.308735 1.29898
-0.342777 0.298632 1.30202
-0.639013 0.0648547 1.34423
-0.687167 -0.0659607 1.39227
-0.36903 0.363089 1.46933
-0.352296 0.404476 1.46137
-0.352601 0.388465 1.47856
-0.350986 0.421342 1.45944
-0.272346 0.376642 1.44492
-0.372904 0.400567 1.45918
-0.331726 0.386723 1.46725
-0.387891 0.440269 1.54089
-0.313521 0.397063 1.44132
-0.406754 0.674897 2.55365
-0.0604746 -0.285648 1.06876
-0.0536327 -0.307657 1.05511
-0.74808 0.481885 1.17347
-0.725489 0.0188594 1.31419
-0.655201 0.042607 1.31146
-0.645853 -0.0424285 1.30222
-0.0890966 0.0904759 1.28792
-0.232118 0.314807 1.44953
-0.251063 0.378229 1.4388
-0.454641 0.303546 1.49109
-0.252784 0.383505 1.45379
-0.226283 0.320603 1.45855
-0.223265 0.317795 1.46144
-0.256533 0.428228 1.44236
-0.344345 0.521165 1.70283
-0.34282 0.532467 1.67341
-0.381428 0.935339 2.49787
-0.0155124 -0.308912 1.01921
-0.0518801 -0.304572 1.05596
-0.0574719 -0.269899 1.08212
-0.732829 0.0322116 1.31549
-0.702578 0.0312068 1.30982
-0.693106 0.0114302 1.32692
-0.66242 0.0609713 1.31949
-0.327417 -0.00664479 1.36499
-0.309682 0.381119 1.46398
-0.39197 0.398584 1.45368
-0.251625 0.399633 1.44958
-0.0662304 -0.30819 1.05093
-0.00644132 -0.30444 1.0236
-0.0513891 -0.304981 1.06247
-0.761338 0.480486 1.18502
-0.758476 0.481056 1.18312
-0.775621 0.499345 1.20352
-0.774303 0.502394 1.20487
-0.0951497 0.0953151 1.14143
-0.0942714 0.0933986 1.13421
-0.0997525 0.096724 1.14033
-0.653243 -0.0417471 1.31824
-0.727032 0.0203847 1.31887
-0.359741 0.317574 1.31106
-0.349921 0.365094 1.47459
-0.311248 0.382496 1.45024
-0.371882 0.405685 1.45138
-0.333238 0.364238 1.47023
-0.306268 0.33604 1.7198
-0.323753 0.514909 1.69387
-0.711109 -0.367663 1.17622
-0.00346386 -0.309196 1.03949
-0.034152 -0.310253 1.0439
-0.0573578 -0.289987 1.06506
-0.11881 0.435323 1.04667
-0.125018 0.425156 1.05296
-0.740056 0.0333812 1.31964
-0.767291 0.0120555 1.35461
-0.355012 0.328138 1.29531
-0.289789 0.403553 1.44612
-0.19307 0.246555 1.47209
-0.289685 0.323586 1.47353
-0.252709 0.364203 1.45696
0.335136 -0.0211429 1.39405
-0.294734 0.429703 1.45289
0.224837 0.066723 1.09082
0.236699 0.0422 1.08163
0.229623 0.0812266 1.24907
0.197066 0.268573 0.844125
0.199023 0.279192 0.803548
0.186194 0.312886 0.81382
0.207922 0.287552 0.861422
-0.390826 0.476452 1.69386
-0.336799 0.677493 2.01078
-0.00528192 -0.306854 1.01889
-0.0299784 -0.308725 1.04737
-0.0546597 -0.287535 1.06877
-0.0526748 -0.289321 1.0766
-0.300941 0.350859 1.28133
-0.178175 0.0578019 1.33679
-0.203881 0.441907 1.42439
-0.31168 0.419527 1.45201
0.186929 0.295864 0.829656
0.254581 0.0759576 1.23597
0.190384 0.298898 0.831866
0.204891 0.279097 0.860469
0.208398 0.287267 0.869928
0.208454 0.286051 0.860592
0.211664 0.267734 0.84527
0.21677 0.274559 0.832278
0.216837 0.26822 0.84734
-0.34014 0.450554 1.67152
-0.731294 -0.36816 1.17699
-0.738633 0.449463 1.16579
-0.736759 0.450812 1.16592
-0.0882048 0.0894799 1.16356
-0.720467 0.0223835 1.31818
-0.424788 0.328367 1.4848
-0.228794 0.278887 1.4725
-0.447935 0.265366 1.50416
-0.245768 0.265442 1.49406
-0.593847 0.901137 1.47429
-0.533337 0.892729 1.46287
-0.5357 0.89266 1.46418
-0.51394 0.865224 1.47536
-0.305683 0.353173 1.28853
-0.52232 0.871675 1.37614
-0.684563 0.394936 1.1348
-0.230101 0.328804 1.41787
-0.502604 0.835602 1.43492
-0.696467 0.411528 1.18595
-0.730544 0.017929 1.3132
-0.717237 0.039055 1.40317
-0.615387 0.808328 1.26867
-0.671179 0.808102 1.32079
-0.69576 0.833901 1.33678
-0.750671 0.832954 1.36128
-0.676559 0.808752 1.36259
-0.485929 0.778721 1.35002
-0.645719 -0.321454 1.23611
-0.731641 0.0510361 1.38213
-0.468585 0.722604 1.2293
-0.472651 0.737754 1.24748
-0.605836 0.795378 1.28173
-0.664088 0.802141 1.31055
-0.688595 0.828629 1.3378
-0.741186 0.818724 1.35248
-0.654203 0.876929 1.44213
-0.549771 0.064516 1.24009
-0.684288 0.392573 1.13407
-0.689797 0.410302 1.18342
-0.459255 0.344561 1.48567
-0.45688 0.278188 1.51984
-2.11636 0.149548 1.45379
-0.472988 0.779916 1.23216
-0.680642 0.84739 1.4469
-0.690078 0.878566 1.48865
-0.873011 1.21271 1.80148
-2.70748 6.77492 7.62709
-1.65157 0.049727 1.15045
-2.38542 0.161307 1.42326
-0.674444 0.404357 1.12262
-0.237617 0.327791 1.27257
-0.241153 0.2224 1.1866
-0.24137 0.206557 1.19919
-1.75692 1.01121 1.14939
-0.241337 0.196416 1.21332
-0.239231 0.266402 1.18068
-1.57885 0.0776386 1.12134
-2.05703 0.144532 1.38421
-1.91549 1.14481 1.24346
-2.29114 0.0581862 1.37948
-1.72772 0.0829781 1.16041
-2.33539 0.140391 1.42611
-1.77678 0.0918376 1.21508
-0.651368 0.784962 1.2921
-1.76925 0.418924 1.05622
-1.81043 0.499779 1.17346
-0.645006 0.794881 1.29538
-2.3391 0.67075 1.33978
-2.06654 0.607741 1.29888
-0.467015 0.707672 1.26698
-0.668473 0.786538 1.29393
-0.685245 0.307845 1.16255
-0.664662 0.397481 1.10946
-1.60526 0.0388503 1.15665
-1.5577 0.403685 1.05692
-0.628382 0.0693548 1.2946
-0.676536 0.401469 1.18635
-1.78539 -0.440818 1.29433
-1.53877 0.0395005 1.09422
-1.58498 0.416637 1.07508
-1.60248 0.377885 1.09625
-1.56918 0.365729 1.0754
-1.77444 0.0774819 1.10814
-1.6557 0.0521814 1.14475
-1.66943 0.0633778 1.14136
-0.665103 0.392914 1.10024
-0.447718 0.205455 1.26791
-1.66978 -0.415384 1.25139
-1.54002 0.822116 1.02768
-1.68101 -0.420215 1.25661
-1.69306 -0.426881 1.24601
-1.73106 -0.436423 1.28858
-1.55796 0.84789 1.04793
-1.67175 -0.43683 1.27276
-1.66149 -0.429958 1.28315
-1.74638 -0.433759 1.26454
-1.63098 0.402946 1.09566
-1.53036 0.0660042 1.09611
-2.12986 -0.439034 1.40939
-1.80653 -0.358159 1.22408
-1.71636 0.885851 1.08055
-1.66168 0.0516147 1.14842
-5.7088 -1.24554 2.44573
-4.80589 -1.02924 2.13136
-1.93727 0.086267 1.20553
-1.9797 0.515114 1.15953
-1.71593 0.586613 0.979882
-1.93441 0.352181 1.15353
-1.8749 0.471728 1.1257
-1.90477 0.353985 1.14892
-2.14021 1.05028 1.15507
-2.30866 1.1575 1.21914
-3.04288 0.120888 1.52785
-2.92951 0.679974 1.40146
-2.93409 0.678553 1.403
-3.11172 0.741715 1.46743
-3.1286 0.749884 1.48487
-2.81155 1.2218 1.28326
-2.34598 0.947819 1.13836
-1.49334 0.781773 1.00987
-1.55502 0.400292 1.05568
-1.62299 0.392619 1.09522
-1.67315 0.941806 1.13159
-1.94381 -0.398571 1.28483
-1.87585 -0.382448 1.26672
-1.73383 0.838043 1.07922
-3.29092 -0.682026 1.5575
-1.83951 0.315118 1.12072
-1.75034 0.280605 1.06791
-1.69719 0.413273 1.11647
-1.86329 0.912543 1.13402
-1.74454 0.432218 1.13982
-1.87976 0.691376 1.06894
-1.89311 0.929612 1.15076
-1.78628 0.855012 1.10164
-2.13297 1.0471 1.16404
-2.57115 0.081643 1.33113
-2.52735 0.544387 1.24647
-2.69472 1.14796 1.23746
-3.02728 1.33515 1.34649
-1.45901 0.749527 0.985407
-1.54752 0.398644 1.05383
-1.59099 0.366846 1.07556
-1.68906 -0.324433 1.16511
-1.72246 0.0209275 1.09687
-1.66009 0.0614782 1.14352
-1.7206 0.0193929 1.09627
-1.81892 0.30462 1.11009
-1.73193 0.407293 1.05416
-1.80249 0.302628 1.09173
-1.69943 0.428524 1.11241
-3.52085 -0.727418 1.62521
-2.03769 0.984335 1.11091
-2.13206 1.04825 1.16177
-2.05041 0.0134003 1.08567
-2.02571 0.042504 1.09351
-2.32133 0.485521 1.17252
-2.32696 0.486779 1.17406
-1.54246 -0.366572 1.14715
-1.4183 0.721258 0.959825
-1.46301 0.757936 0.989684
-1.53354 -0.367294 1.14649
-1.53211 -0.377934 1.17631
-1.53079 0.0532455 1.08409
-1.51933 0.0639367 1.08574
-1.52567 0.0310214 1.09779
-1.55287 0.351322 1.04329
-1.55184 0.330237 1.06375
-1.69089 -0.328385 1.16834
-1.70324 -0.332551 1.15042
-1.81121 -0.409749 1.23042
-1.67356 -0.329671 1.16916
-1.71593 0.0667531 1.09077
-1.80198 0.0762981 1.13944
-1.73301 0.020526 1.10043
-2.50302 -0.496331 1.29283
-1.90369 0.899467 1.06691
-1.92266 0.902005 1.07497
-2.17373 0.0548029 1.18263
-2.20303 0.444295 1.13392
-2.25702 0.470791 1.16548
-2.43577 1.01201 1.1701
-2.47195 1.03248 1.18113
-1.5494 -0.369333 1.15331
-1.51836 -0.360775 1.14649
-1.49201 -0.365421 1.16396
-1.48867 -0.364581 1.16173
-1.52128 -0.354768 1.14821
-1.54301 0.0411933 1.09233
-1.75072 -0.350599 1.19868
-1.62372 0.723882 1.02609
-1.69087 0.779808 1.04686
-2.25233 -0.444504 1.20568
-1.68252 0.416603 1.07421
-1.74359 0.404309 1.04909
-1.67282 0.408283 1.08915
-1.67173 0.392949 1.09358
-2.2941 -0.450185 1.21835
-1.88964 0.87676 1.06388
-1.84613 0.854723 1.05177
-2.10817 0.0542539 1.16412
-2.19703 0.46468 1.1286
-2.15671 0.426864 1.1152
-2.05596 0.385013 1.05975
-2.22991 0.866286 1.08637
-1.39495 0.704086 0.945043
-1.51162 -0.327785 1.14197
-1.52869 -0.330775 1.15014
-1.52377 -0.378226 1.19278
-1.57798 0.770627 1.00184
-1.56103 0.360772 1.05093
-1.64687 -0.32067 1.15473
-1.66559 -0.321791 1.15873
-1.68104 -0.326273 1.13803
-1.62326 0.759873 1.02668
-1.71822 0.0202292 1.10825
-1.71338 0.00488022 1.09909
-1.74641 0.302085 1.06442
-1.70263 0.443521 1.09316
-1.73006 0.800883 1.06207
-6.43321 0.192106 1.628
-1.50812 -0.357447 1.13417
-1.52016 -0.362741 1.14849
-1.50099 -0.36762 1.15562
-1.53346 0.326769 1.04849
-1.71047 0.0100452 1.08716
-1.72173 -0.340959 1.19052
-1.65143 0.0532925 1.13974
-1.99609 0.0373036 1.08257
-2.13003 0.793132 1.02553
-5.35363 0.204748 1.35861
-4.70241 0.196463 1.20163
-3.54324 -0.0215764 1.00435
-2.80525 0.252291 0.774494
-1.25525 -0.225988 0.777178
-1.49147 -0.352097 1.13425
-1.5444 0.333918 1.04219
-1.55505 0.341703 1.04535
-1.59316 0.688587 1.0143
-1.67406 -0.326072 1.15514
-1.66691 0.0693031 1.11418
-1.71482 0.0184466 1.08673
-1.67181 0.0703814 1.1226
-1.73221 0.396499 1.06783
-1.73866 0.403956 1.07631
-1.73989 0.406149 1.07767
-2.026 -0.385962 1.07974
-2.01925 -0.365121 1.10362
-2.02446 -0.362001 1.10742
-2.07052 0.383421 1.05026
-4.00019 -0.714411 1.20042
-3.24434 -0.590165 1.218
-3.19795 0.0234375 0.895708
-4.92213 1.51541 1.09824
-2.81804 0.0587058 0.792447
-4.54283 0.471882 1.13017
-4.9269 1.29323 1.09946
-4.74952 0.46046 1.13398
-3.12391 0.271104 0.819551
-1.5124 0.378221 1.03547
-1.5696 0.722155 1.00261
-1.67057 -0.323834 1.15222
-1.68404 -0.371326 1.14724
-1.6888 -0.374309 1.15478
-1.64193 0.775028 1.03534
-1.65456 0.0466752 1.12595
-1.80698 0.817801 1.01945
-1.72146 0.827647 1.03258
-1.69894 0.80539 1.02256
-2.09794 -0.393297 1.10089
-2.11259 0.40887 1.09378
-2.11353 0.784486 1.01401
-4.46125 -0.719107 1.20447
-3.66492 -0.590435 1.17219
-3.81481 0.517434 0.987751
-4.69032 0.622461 1.11164
-4.99341 -0.837121 1.38914
-5.39464 -0.946447 1.51981
-13.2109 1.40455 7.78001
-1.48629 -0.314721 1.13072
-1.47568 -0.319426 1.12347
-1.6824 -0.329268 1.16315
-1.66209 0.748559 1.02506
-1.71698 0.823388 1.05254
-1.74713 0.765472 0.990684
-3.25757 -0.555307 1.01974
-3.26497 0.0141326 0.930573
-3.9942 0.0513057 1.09629
-4.13961 1.13467 0.941711
-3.16289 0.813283 0.765019
-3.98875 0.973736 0.940081
-3.58732 -0.965903 1.31406
-4.68601 -1.49017 1.58202
-4.00686 -0.719757 1.4088
-4.80644 0.00413646 1.08143
-4.74862 0.532835 0.973382
-6.01169 0.0223371 1.28974
-6.32475 0.0359959 1.36785
-1.46708 -0.319832 1.12053
-1.46948 -0.360629 1.15827
-1.46325 -0.35102 1.12312
-1.52085 0.0383977 1.08128
-1.52244 0.304874 1.04123
-1.69168 -0.320967 1.14212
-1.65734 0.389272 1.09552
-1.67431 0.385851 1.0863
-2.21398 -0.400011 0.865137
-2.00164 0.0149593 1.04607
-2.92898 0.0402647 0.807169
-3.15847 0.0139119 0.891344
-3.7136 1.0429 0.837046
-3.41628 0.368136 0.903303
-3.52506 0.807258 0.845211
-4.06152 -1.27806 1.40371
-3.98499 0.151235 0.964179
-5.05603 -1.08462 1.27944
-5.39955 -1.15205 1.35318
-6.36926 -1.40276 1.55887
-4.39131 0.476235 0.948161
-6.93051 -1.436 1.6942
-5.35247 1.46614 0.898593
-5.82382 -1.19676 1.49271
-6.0903 -1.25289 1.5646
-1.48763 -0.349839 1.12816
-1.56371 0.38143 1.05218
-1.57726 0.671623 1.009
-1.70237 0.0225139 1.07928
-1.68167 0.391972 1.09354
-1.7473 0.406257 1.05077
-1.67861 0.788785 1.01182
-1.99145 0.598402 0.945048
-2.02932 0.0489904 1.07904
-1.04124 0.0654262 0.565321
-2.84648 -0.488869 1.03861
-3.20641 -0.496881 0.90317
-3.15918 0.00839019 0.877455
-2.96674 -0.528704 1.0483
-3.17196 0.822819 0.765452
-3.26635 0.711896 0.804179
-3.29237 0.694683 0.802915
-3.89974 0.93086 0.851354
-3.36546 0.266163 0.73628
-4.04044 0.973735 0.861533
-4.2178 0.403234 0.892762
-1.6227 -0.355163 0.539097
-1.44272 -0.341417 1.10574
-1.52517 0.0136271 1.08328
-1.65484 -0.365189 1.13579
-1.63628 -0.321451 1.15146
-1.99651 0.678945 1.0079
-3.00287 0.00459744 0.876243
-3.86437 -1.20397 1.33689
-2.98802 -0.478418 0.875164
-3.81865 0.347257 0.841086
-4.03522 -0.581828 0.844342
-4.00703 0.422892 0.862403
-4.44161 1.09649 0.807962
-1.57044 -0.225238 0.504683
-1.44491 -0.322628 1.10454
-1.42194 -0.351678 1.11332
-1.42268 -0.350877 1.11333
-1.43174 -0.353509 1.12485
-1.43966 -0.344662 1.10987
-1.44404 -0.318531 1.11393
-1.40553 -0.347222 1.1123
-1.45775 -0.347736 1.1088
-1.50375 0.0325295 1.09553
-1.49668 0.0648147 1.08036
-1.50944 0.0375685 1.06642
-1.51083 0.0403448 1.0902
-1.50471 0.0312998 1.09398
-1.49997 0.063445 1.08443
-1.51502 0.381475 1.04248
-1.52659 0.348463 1.03754
-1.50455 0.590844 0.974467
-1.65329 0.0515657 1.13692
-2.02939 0.0403477 1.08491
-2.04331 0.728618 0.979126
-1.96475 0.585934 1.32096
-2.99158 0.659891 0.741941
-2.8223 -0.00679911 0.819451
-2.97703 0.25392 0.792844
-3.22805 0.795372 0.780241
-2.95521 0.205547 0.770604
-3.14557 0.676092 0.775814
-3.46052 -0.477653 0.800411
-4.1135 2.10188 0.732549
-3.59442 -0.499632 0.774226
-4.62743 1.16111 0.593888
-3.78966 0.294773 0.831848
-3.98318 0.327621 0.860881
-4.51015 -0.95973 1.16865
-4.57113 -0.973425 1.1682
-4.59508 -0.91623 1.17991
-4.2341 1.08873 0.775786
-4.76476 -0.906301 1.18569
-4.95741 -0.946815 1.22659
-4.81163 -0.966152 1.23762
-1.4487 -0.31132 1.09822
-1.43964 -0.341106 1.10098
-1.50921 0.0555272 1.08289
-1.52122 0.305531 1.03606
-1.527 0.35084 1.03834
-1.62518 -0.331803 1.15834
-1.65625 -0.36693 1.13852
-2.09519 0.39484 0.563058
-1.66946 0.392823 1.09778
-1.99542 -0.379916 1.0659
-2.00713 0.631342 0.946954
-2.07214 0.411177 1.05186
-2.06559 0.377164 1.03616
-2.87678 -0.44437 0.926139
-2.90607 -0.0609829 0.836217
-2.88825 0.544339 0.746286
-3.89492 0.409893 0.866336
-4.00717 0.947973 0.767244
-1.60306 -0.224539 0.513985
-1.31196 -0.0249292 0.873142
-1.49543 0.0658583 1.08211
-1.50089 0.065561 1.08277
-1.50832 0.0400403 1.08562
-1.50177 0.580056 0.971251
-1.63895 -0.318577 1.1466
-2.0124 -0.385705 1.07857
-2.02914 0.0314721 1.07025
-2.0879 0.765472 1.00223
-1.90859 0.941954 1.13197
-2.82017 -0.00379564 0.816789
-2.81667 0.00403108 0.796351
-3.28196 1.24022 0.654449
-3.61286 1.77067 0.662228
-3.11707 -0.80024 1.14589
-3.43792 0.0978259 0.833635
-5.19594 1.39625 0.408204
-7.51127 0.390493 -0.931134
-1.49064 0.373641 1.01588
-1.61311 -0.31105 1.11643
-1.66317 0.0737348 1.11966
-2.01854 0.0386356 1.07187
-3.17453 0.66198 0.785906
-6.84963 -2.09261 -0.333764
-2.36077 -0.567996 0.732793
-1.73565 -0.36744 0.635017
-1.71875 -0.368052 0.637444
-1.69526 0.0636387 1.09398
-1.99645 -0.384335 1.0792
-2.02568 0.0346588 1.07423
-2.04215 0.73584 0.942195
-2.12018 0.785278 1.016
-2.02772 0.657443 1.12934
-2.82611 -0.00674585 0.798993
-3.44406 -0.485099 0.770052
-3.30494 -0.0172421 0.771932
-3.46961 0.756224 0.692864
-4.26171 -0.797354 1.07356
-4.87625 -0.863924 0.840299
-1.75764 -0.275699 0.656504
-1.47537 0.0471474 1.05551
-1.64842 0.054287 1.14068
-1.67173 0.0661832 1.14174
-1.72363 0.0190688 1.085
-1.70968 0.065618 1.08793
-2.01562 -0.379696 1.06103
-2.00288 0.0550706 1.04128
-1.9994 0.29838 0.989763
-2.05889 0.400087 1.03662
-2.01686 0.645823 1.12435
-2.99608 -0.49378 0.930226
-2.94584 -0.481992 0.946241
-2.87518 -0.0784605 0.815594
-2.88501 0.568482 0.739166
-3.12429 0.78053 0.741101
-3.42993 0.243334 0.771627
-3.97603 -0.828982 1.02491
-4.11654 -0.81018 1.05176
-3.73617 -0.762512 0.964091
-4.13232 -0.571947 0.778848
-2.03562 0.39138 0.995599
-2.0413 0.365478 1.03522
-2.01549 0.380275 1.0039
-2.82354 0.308047 0.762776
-3.2706 0.0737201 0.778106
-3.14843 0.68741 0.737218
-3.37422 0.315558 0.729046
-3.35238 0.283413 0.733461
-3.41421 1.48096 0.48409
-4.22154 -0.837677 1.07402
-4.91918 -0.867263 0.842913
-5.32877 1.42331 0.421798
-1.6492 0.0703635 1.11369
-1.63446 0.377065 1.07273
-1.77762 0.0252343 1.13314
-3.45564 -1.04575 1.18583
-2.85393 0.558263 0.704535
-3.37988 -0.0417376 0.797831
-4.74618 -0.928586 0.874086
-4.73453 -0.909561 0.853603
-5.33427 1.30924 0.305324
-6.1238 0.253668 -0.149633
-5.8558 -1.07588 -0.00186243
-8.83401 0.383035 -1.03544
-7.77344 0.187856 -0.693052
-1.73057 0.0722206 1.09995
-2.03984 0.0497001 1.08161
-2.01766 0.357077 0.979868
-2.86877 -0.469607 0.898099
-4.65629 -0.888077 1.16059
-5.86649 0.238734 -0.154106
-6.32064 0.194743 -0.276035
-5.95291 0.129382 -0.16584
-7.76495 0.097624 -0.647384
-1.87685 0.00551687 1.22448
-2.14391 0.819177 1.25071
-3.00532 0.609239 0.718861
-2.84828 0.0795096 0.786504
-2.95418 0.568558 0.737658
-3.10892 -0.79491 1.14195
-3.45773 -0.0194891 0.779523
-3.38669 0.719822 0.659982
-3.36825 0.754831 0.653687
-5.42745 -1.62866 0.79639
-5.31454 1.39441 0.354218
-6.00264 -1.10747 0.000848596
-1.95684 -0.367261 1.06434
-2.02249 0.378378 0.990032
-2.98225 -0.479159 0.910646
-3.0866 -0.922451 1.1034
-3.07561 0.659831 0.719378
-3.42208 0.769283 0.667611
-3.82295 1.76125 0.4581
-3.90741 -0.755872 0.997529
-5.06784 -0.0460048 -0.20336
-5.91968 0.226663 -0.154995
-1.4119 0.306055 0.748114
-1.91485 -0.358819 0.530539
-1.93928 -0.36468 1.05183
-2.0042 0.0557525 1.03984
-2.02396 0.0536956 1.05091
-2.55174 -0.363628 0.707012
-3.49466 0.783324 0.660429
-3.43669 0.761964 0.648647
-3.38736 0.745193 0.639411
-3.74803 -0.759852 0.968344
-5.44382 1.32951 0.316534
-6.7203 -1.94271 -0.163199
-1.98871 0.70373 0.966013
-1.97979 0.69885 0.955478
-1.98932 0.700105 0.956455
-2.80018 -0.062283 0.807598
-3.01887 1.08825 0.64431
-3.52569 -0.499312 0.763669
-1.51619 -0.0431242 0.443191
-1.81819 -0.135665 0.447914
-1.45426 0.0989597 0.632658
-1.48641 0.116972 0.647215
-1.87346 0.013074 1.19052
-3.33503 0.214421 0.7339
-1.88693 -0.336068 1.03122
-2.01202 0.0353307 1.07985
-3.2986 0.251858 0.701083
-1.95724 0.040256 1.07311
-2.91717 -0.433092 0.827678
-3.24037 0.718132 0.72124
-3.22763 0.709874 0.72108
-5.46833 1.47746 0.408003
-5.74708 1.52881 0.326715
-6.75243 -1.96116 -0.198348
-6.10704 0.134992 -0.16206
-6.89347 -0.0398096 -0.465926
-8.43333 0.412324 -0.90888
-1.91168 0.00874384 1.0288
-1.97542 0.367292 0.979633
-2.97089 -0.884037 1.07509
-2.99944 -0.893961 1.08128
-4.03598 -0.929195 1.00834
-5.06039 -1.59134 0.44518
-5.78141 1.52743 0.299329
-7.92902 -0.168795 -0.681984
-8.63158 -0.0850028 -1.00129
-1.4483 0.0930973 0.621299
-1.80711 -0.334081 0.567553
-1.91318 0.00779762 1.01593
-1.98192 0.0503874 1.06589
-1.92793 0.0321473 1.06285
-2.85262 -0.46288 0.918472
-2.87886 0.633672 0.732087
-2.97773 1.07707 0.64345
-3.37593 0.264378 0.74127
-3.33079 0.294295 0.737001
-3.46623 -0.81389 1.00322
-5.46989 -1.75902 0.457746
-5.11808 -0.905284 0.879126
-5.22165 1.3335 0.376969
-1.47321 0.104955 0.650579
-2.45724 0.441424 0.635835
-2.88958 0.199649 0.759201
-3.07422 -0.7815 1.13673
-3.31383 -0.0433001 0.774738
-3.35042 -0.0184243 0.782026
-5.16908 0.938849 0.435698
-10.2788 -0.771332 -1.14113
-2.86743 0.263218 0.778636
-8.80731 0.292415 -1.20226
-9.49144 -0.715101 -0.971106
-4.6941 -0.899574 0.811098
-5.15061 -0.921666 0.805241
-5.07182 -0.895686 0.81142
-5.94853 -1.79469 0.328906
-5.70634 1.4929 0.307603
-6.32089 -2.69565 -2.54004
-6.6122 1.044 -0.431954
-6.85501 1.45053 -0.431822
-8.1923 -0.0623763 -0.686657
-10.0615 -0.120774 -1.29681
-1.95007 -0.359226 0.60194
-1.97982 -0.378238 0.603497
-2.38568 0.415234 0.630666
-2.85057 0.0835711 0.778095
-3.34246 0.77169 0.749571
-4.91596 -0.914658 0.786191
-5.60286 -1.76783 0.391197
-4.96497 0.911045 0.446427
-9.13716 -0.109125 -1.10231
-1.63661 -0.105427 0.435104
-1.86407 -0.319375 0.578864
-2.11233 -0.210495 0.2456
-2.54588 -0.365162 0.815256
-2.48131 -0.342818 0.705217
-2.85687 -0.449084 0.942562
-2.86912 0.558024 0.718724
-2.91862 0.175325 0.750241
-3.22559 -0.521382 0.6573
-3.17824 -0.779131 0.977978
-3.19714 0.670472 0.724836
-3.22111 0.672045 0.761003
-4.33027 -0.868205 1.07871
-4.69716 -0.891834 0.803589
-4.884 -0.903366 0.850362
-5.65553 -1.02923 0.270814
-5.75316 0.211301 -0.134812
-6.38518 0.672009 -0.459952
-7.80935 -1.85153 -3.20133
-7.43616 0.939933 0.823093
-1.9557 -0.354049 0.600128
-2.80294 -0.0257925 0.817588
-2.90337 0.611084 0.727577
-2.82611 0.552976 0.747595
-3.65564 0.580917 0.531484
-5.11259 -1.61805 0.442081
-4.7665 -0.902024 0.790981
-5.04733 -0.903779 0.611486
-5.65016 -0.915334 0.909414
-7.22216 -0.107435 -0.550874
-2.71164 -0.42016 0.901686
-2.81011 -0.0457399 0.828641
-2.86353 0.682618 0.720359
-2.68979 0.166063 0.711726
-3.41568 0.748894 0.780189
-5.08179 -0.900172 0.848691
-7.10856 0.783748 -0.529208
-2.83016 -0.0414458 0.832412
-2.80291 0.00579323 0.814024
-2.79638 -0.0423595 0.831301
-2.75777 0.302956 0.763233
-3.00771 -0.489853 0.939817
-2.78856 -0.0483187 0.824691
-2.72663 0.669684 0.701886
-2.81809 0.069471 0.80856
-2.93733 0.573723 0.762438
-2.94062 0.569105 0.757526
-2.72591 0.669272 0.700902
-1.92085 -0.348131 0.567941
-1.93187 -0.35989 0.566326
-2.24863 -0.453126 0.668573
-2.13135 0.279503 0.568618
-2.28345 -0.431109 0.550642
-2.83626 -0.00238015 0.825302
-2.86462 0.0696021 0.810609
-3.38388 0.341729 0.717496
-3.38607 0.716917 0.671781
-4.87177 -1.65127 0.579711
-5.51057 -0.998471 0.296923
-6.20197 -1.77151 0.202167
-6.57818 1.05106 -0.404395
-6.98233 1.56125 -0.447689
-6.74504 1.48753 -0.396553
-8.22521 -0.0381487 -0.679611
-10.1587 -0.756293 -1.11907
-10.9035 0.43785 -1.74827
-9.63885 0.377276 -1.36212
-2.16716 -0.121584 0.437148
-2.16615 -0.101444 0.465371
-2.18845 -0.10727 0.470981
-2.41377 0.405864 0.638922
-2.81288 -0.0500769 0.822559
-2.79891 -0.0226063 0.810761
-2.77736 0.6183 0.713998
-3.49803 -0.498645 0.776438
-3.25489 0.739435 0.727077
-3.24224 0.172951 0.729174
-3.26247 0.203164 0.71775
-3.29888 0.332817 0.710831
-3.93666 -0.771897 0.980666
-8.0078 2.81507 -5.55518
-5.14056 -0.923592 0.799328
-5.42975 1.39485 0.323715
-7.74752 -3.39431 -3.15058
-7.29912 0.467597 -4.03906
-6.02077 0.467264 -2.71733
-6.80733 0.736095 -3.56452
-9.29458 -1.36264 -1.80776
-2.80568 0.00100372 0.822826
-2.80052 0.00241608 0.817082
-2.95695 0.214173 0.777875
-3.28825 -0.464318 0.773501
-3.31151 0.278193 0.755225
-3.38368 0.288906 0.742486
-3.39737 0.732002 0.674219
-4.70184 -0.286323 0.726288
-5.79927 -1.63983 0.207685
-6.11778 1.29218 -0.303027
-6.68081 1.41945 -0.414461
-8.12709 -1.84565 -3.13015
-8.46938 0.790193 -1.49556
-9.27371 -0.687431 -2.30493
-2.83465 0.056594 0.800948
-2.54263 0.223245 0.674862
-2.89139 0.0877388 0.809186
-2.82966 0.728387 0.731256
-3.05519 -0.7408 0.945226
-3.18151 -0.0589684 0.739562
-3.43056 -0.0946921 0.692832
-3.36903 0.332844 0.725371
-3.47084 -0.936252 1.06801
-3.41964 0.770408 0.665575
-3.40651 0.734845 0.679095
-4.8796 -0.773081 0.814477
-4.97531 -1.11055 0.970467
-5.63645 1.53253 -1.0082
-5.26824 -1.57826 0.791302
-5.60425 -0.0645516 -0.282283
-6.06352 -0.0601737 -0.361989
-7.62256 0.0951176 -4.38641
-6.21286 0.647764 -2.69874
-5.84405 -1.62221 -0.0959686
-6.12359 1.17007 -0.365937
-6.40136 0.951993 -2.55568
-7.24895 0.84651 -3.62541
-8.36779 -1.85108 -3.18534
-8.11254 -1.82981 -3.12636
-8.65814 -0.114993 -1.01783
-8.59215 0.899659 -1.17497
-8.95696 0.46094 -3.25716
-10.0618 -1.11515 -2.57374
-9.72753 -2.34465 -4.3163
-10.0293 -2.40998 -4.45296
-9.0457 -1.36559 -1.5734
-9.84639 -0.761442 -1.05741
-2.81313 -0.0213808 0.817513
-2.86148 -0.0320072 0.847071
-2.82064 0.207943 0.621204
-2.88645 0.0808158 0.824484
-2.77391 0.266058 0.777129
-2.75265 0.492397 0.731119
-3.20066 0.0858244 0.779676
-3.11961 0.685698 0.736613
-3.41454 -0.480901 0.763096
-3.27988 0.0845774 0.781636
-3.27858 0.0868835 0.788613
-3.36142 0.313302 0.725316
-3.24979 -0.832639 1.00645
-6.04632 2.11302 -3.62746
-4.75879 -0.865513 0.813077
-4.91376 -0.169929 0.726542
-7.43342 1.25524 -3.27361
